NCOLS 171
NROWS 37
XLLCORNER 210004.651214
YLLCORNER 7505008.22229
CELLSIZE 4999.99999999998 
NODATA_value -9999 
-9999 -9999 -9999 -9999 -9999 -9999 -9999 -9999 -9999 -9999 -9999 -9999 -9999 -9999 -9999 -9999 -9999 -9999 -9999 -9999 -9999 -9999 -9999 -9999 -9999 -9999 -9999 -9999 -9999 -9999 -9999 -9999 -9999 -9999 -9999 -9999 -9999 -9999 -9999 -9999 -9999 17.3787729614659 11.1472551345825 9.31289915084839 16.5086270141602 23.4864556884766 26.5383949279785 25.5854220581055 24.9322657775879 25.2129620361328 26.1174002838135 29.9479052734375 35.7929845428467 41.9874835205078 53.539268951416 63.8470233154297 53.2086503601074 48.3023297119141 64.4578192138672 62.8982737731934 49.8513096618652 72.1542517089844 74.7270327758789 60.5774251556396 49.9782376098633 20.3997731399536 18.1414153289795 19.8287282562256 22.2443363952637 24.1130862426758 23.9390703582764 32.3559365081787 43.7082929992676 58.2019192504883 86.0382113647461 68.1813780212402 95.5996560668945 57.6700842285156 52.6963786315918 55.9390905761719 60.2881394958496 63.2659428405762 64.4707705688477 71.8876342773438 71.264860534668 71.4486706542969 74.4211419677734 77.4759332275391 81.5005352783203 89.6059466552734 96.3863925170898 100.905433959961 113.772848205566 131.365016784668 133.304477233887 123.876215209961 134.042504272461 132.743507995605 148.64443359375 146.020917358398 147.903256225586 143.088517456055 129.357201843262 118.764465026855 110.991774291992 106.702079162598 104.145195922852 119.526691894531 180.509701538086 210.346622314453 194.135493774414 185.249066162109 131.688929138184 146.888167114258 152.43341003418 132.91975402832 126.952054748535 134.959020385742 141.827682495117 156.307714233398 162.421655273437 189.144337768555 186.411741333008 213.305283203125 239.25725402832 233.980717773438 192.717089233398 168.17130859375 179.731739501953 161.851979980469 152.595490112305 159.602147827148 172.117080688477 168.508367919922 160.121625366211 160.743165283203 167.212634277344 177.304314575195 166.86758972168 182.884533691406 216.733491821289 227.644190673828 223.859323730469 213.951758422852 211.168427124023 215.902105102539 229.512915649414 245.903822631836 267.50970703125 278.335172119141 272.349221191406 279.821785888672 282.998835449219 273.177845458984 275.771998291016 282.166604003906 277.211804199219 284.843330078125 286.943376464844 290.031851806641 277.450438232422 272.903411865234 -9999 -9999 -9999 -9999 -9999 -9999 -9999 -9999 -9999
-9999 -9999 -9999 -9999 -9999 -9999 -9999 -9999 -9999 -9999 -9999 -9999 -9999 -9999 -9999 -9999 -9999 -9999 -9999 -9999 -9999 -9999 -9999 -9999 -9999 -9999 -9999 -9999 -9999 -9999 -9999 -9999 -9999 -9999 -9999 -9999 -9999 -9999 -9999 -9999 7.24481892585754 20.2093668916951 27.1344982147217 20.5743506240845 32.4677596282959 49.0921603393555 66.9174926757812 59.1180407714844 50.5377972412109 38.467473526001 36.4482688140869 37.5967362976074 40.6413716125488 47.5048570251465 55.9416918945313 86.5938189697266 71.152578125 69.8228988647461 83.6849111938477 78.9561267089844 66.3357962036133 84.9950497436523 105.300920410156 94.0190231323242 64.068550567627 42.4000765991211 26.6371340179443 25.0185161590576 34.5203065490723 32.9522956848145 31.3186999511719 46.1356288146973 62.7961129760742 72.2636700439453 78.8245416259766 75.6858721923828 66.6007907104492 59.0674745178223 62.4653547668457 67.4930595397949 68.7112493896484 70.376100769043 71.0964834594727 72.8011712646484 82.3567572021484 77.9837197875976 79.1645867919922 85.0687542724609 87.1921954345703 94.0308380126953 102.391920776367 107.988287658691 118.781563110352 140.848298034668 146.363856201172 140.102022705078 142.678432617187 147.254317016602 152.98117980957 160.364250488281 153.34494934082 142.772535400391 129.471825561523 124.399382629395 120.527080383301 114.62838470459 112.095494995117 137.072847290039 158.091233520508 173.809468994141 230.4117578125 178.341017456055 154.357592773437 175.907874145508 219.306907958984 183.442604980469 151.821541748047 153.914167480469 157.098658447266 172.006698608398 175.00350402832 192.155634155273 190.10049987793 216.632406005859 246.204378051758 257.496591796875 202.299837036133 175.718579101563 193.48944519043 180.720505371094 169.442084960938 177.316087646484 198.608045654297 190.975679321289 166.980567626953 164.446239624023 174.185709228516 193.680195922852 172.101834716797 185.629928588867 227.29048828125 244.386030883789 236.914721679687 232.776726074219 224.503521118164 215.617817993164 224.971928100586 237.997231445313 244.868409423828 249.315563354492 247.55760559082 254.345668334961 264.181350708008 261.76339050293 266.977883300781 269.664041748047 273.661756591797 286.557716064453 297.906525878906 296.220904541016 283.7912890625 267.641477457682 -9999 -9999 -9999 -9999 -9999 -9999 -9999 -9999 -9999
-9999 -9999 -9999 -9999 -9999 -9999 -9999 -9999 -9999 -9999 -9999 -9999 -9999 -9999 -9999 -9999 -9999 -9999 -9999 -9999 -9999 -9999 -9999 -9999 -9999 -9999 -9999 -9999 -9999 -9999 -9999 -9999 -9999 -9999 -9999 -9999 -9999 -9999 6.53901084264119 6.10204948078502 12.0983938134235 28.0529015541077 32.9009094238281 35.5310882568359 60.4353996276855 88.8134655761719 82.7065103149414 82.7750387573242 88.5138055419922 97.6523849487305 81.0095324707031 50.9488656616211 52.4751091003418 61.2954541015625 60.2173168945313 84.1618109130859 99.1446841430664 102.832684631348 88.3118630981445 74.5996878051758 79.7547355651855 98.4136727905273 86.7564541625977 71.4898416137695 61.6295414733887 45.3026837158203 34.3684368896484 41.9447283935547 48.2213121795654 50.0215709686279 37.3988520812988 55.3376846313477 69.6781889343262 68.5634776306152 66.5622296142578 98.0580072021484 93.0850717163086 72.1612149047852 76.7686557006836 83.3702764892578 81.731669921875 79.1910009765625 82.0074884033203 88.4323043823242 86.5152102661133 85.9154434204102 83.8264926147461 91.0257550048828 93.5396920776367 98.9220874023437 106.774813537598 115.146365356445 120.033808898926 130.714253234863 144.690181274414 154.903372802734 160.890687255859 170.625040893555 182.867261962891 161.685804443359 150.247166137695 142.882271728516 139.233756713867 136.570840454102 130.201960449219 123.766070861816 124.991787109375 141.744032287598 172.990556030273 219.973190917969 214.56186340332 191.597826538086 209.335877685547 197.250363769531 215.965129394531 147.760097045898 165.726718139648 155.570209960937 175.113011474609 181.230388183594 185.361636352539 185.012464599609 199.457673339844 212.904349975586 244.370352783203 245.070191650391 222.283280639648 211.618934936523 216.919356079102 209.443979492188 205.318111572266 211.32450012207 222.664428710938 198.452920532227 172.81498840332 169.477506713867 180.516512451172 205.383200683594 177.874130249023 191.059393310547 228.887151489258 231.584810180664 254.610189208984 257.13966796875 235.190069580078 227.043680419922 226.345689086914 233.073049316406 234.828966064453 237.236051635742 241.045704345703 247.292365112305 255.687052001953 283.874672851562 293.314913330078 288.826688232422 290.914425048828 301.523485107422 305.681612548828 296.443890380859 289.438157958984 274.347973163311 -9999 -9999 -9999 -9999 -9999 -9999 -9999 -9999 -9999
-9999 -9999 -9999 -9999 -9999 -9999 -9999 -9999 -9999 -9999 -9999 -9999 -9999 -9999 -9999 -9999 -9999 -9999 -9999 -9999 -9999 -9999 -9999 -9999 -9999 -9999 -9999 -9999 -9999 -9999 -9999 -9999 -9999 -9999 -9999 -9999 5.83684226444789 6.23529069423676 8.198480052948 8.74650804519653 16.2358999824524 42.1548713684082 48.9987281799316 52.7861854553223 79.4423284912109 137.446600952148 128.917012023926 127.924986572266 113.583153686523 73.691819152832 71.2384022521973 77.296798248291 72.2080413818359 73.3575169372559 67.8422883605957 81.6993649291992 100.143860473633 114.728032836914 124.336627807617 101.101531982422 87.1193388366699 71.3201135253906 87.7432467651367 117.408114624023 86.8225135803223 72.7334722900391 42.7771939086914 41.5344316101074 57.6027328491211 79.7979252624512 51.1594140625 62.9355815124512 59.8031629943848 58.119521484375 69.2189468383789 130.610281066895 106.148277282715 92.5187295532227 93.4156689453125 91.9593923950195 89.3603707885742 90.1516351318359 98.5189920043945 104.529128723145 96.2112658691406 93.8772268676758 92.5225494384766 94.2939996337891 118.607321777344 119.495969543457 121.790107116699 122.585914001465 127.522354736328 132.954160461426 141.341766357422 153.49305847168 164.982846679687 189.747636108398 194.987995605469 170.590746459961 158.66075378418 157.372019042969 152.970505371094 149.816156005859 144.693677368164 147.27313293457 147.446105041504 177.120253295898 188.826841430664 162.518726806641 206.880550537109 239.847432250977 262.147523193359 241.08194519043 186.555440673828 153.831134033203 198.146496582031 162.273112792969 169.794737548828 187.251372680664 193.758901977539 204.113900756836 215.955634155273 230.70935546875 236.108112792969 229.124896850586 232.250160522461 248.159396972656 225.450311889648 235.901116333008 240.884745483398 242.497553710937 204.678981323242 184.09798828125 191.060521240234 184.50755859375 188.096674804687 210.714877929688 186.906475219727 183.587221679688 222.399848632813 234.761397094727 281.333268432617 287.992590942383 252.285830078125 247.339793701172 235.961820678711 237.019371337891 235.619677734375 236.375392456055 238.763737792969 250.269663085938 269.172798461914 285.418355712891 299.797314453125 299.965665283203 295.015052490234 302.088814697266 297.708321533203 290.477752685547 276.239389648438 267.850140380859 -9999 -9999 -9999 -9999 -9999 -9999 -9999 -9999 -9999
-9999 -9999 -9999 -9999 -9999 -9999 -9999 -9999 -9999 -9999 -9999 -9999 -9999 -9999 -9999 -9999 -9999 -9999 -9999 -9999 -9999 -9999 -9999 -9999 -9999 -9999 -9999 -9999 -9999 -9999 -9999 -9999 -9999 -9999 -9999 5.23320837020874 6.52573541641235 11.171131362915 14.7883491897583 15.7800357055664 31.4851560974121 62.5983004760742 68.5515084838867 75.0145376586914 114.199446716309 154.340095214844 156.579850463867 134.590603637695 136.610903930664 117.482978820801 109.18574432373 95.7374639892578 119.749513549805 113.01268157959 88.099306640625 100.083238830566 121.600507507324 139.092397460937 175.266268310547 171.730636901855 88.6112371826172 84.19703125 127.547603149414 165.410781555176 142.079879760742 162.690777282715 60.6985804748535 53.5963478088379 87.8407933044434 89.4021133422852 63.0568133544922 54.3127787780762 57.9507090759277 59.733540802002 75.977326965332 94.4255487060547 97.7535696411133 101.414019470215 112.289166564941 114.932132263184 103.250213012695 100.95972869873 102.070706176758 118.369235534668 114.501223144531 107.422778320313 103.827341918945 100.494640197754 110.745526428223 128.814486083984 137.082686462402 133.592467651367 139.867265625 139.77071472168 147.206470336914 157.122720947266 169.358439331055 197.946175537109 199.624534912109 180.580784912109 178.437134399414 179.015675048828 166.926748657227 175.870007324219 187.5074609375 183.662620849609 191.983845825195 198.289025268555 182.294769897461 172.652235717773 212.401876831055 244.860560913086 279.525053710938 239.694484863281 173.383733520508 161.030862426758 193.563405761719 169.163883666992 170.556640014648 180.716908569336 195.624782714844 215.495803833008 232.626187133789 247.029237060547 256.0219921875 242.307062988281 243.113453979492 283.179460449219 260.988905029297 246.022203369141 230.162156982422 218.739030151367 187.442216796875 200.615018920898 221.767770996094 201.247698974609 201.028921508789 207.008570556641 195.983860473633 183.990689086914 215.045596313477 235.08789855957 272.695500488281 313.149489746094 267.851669921875 258.37760559082 246.828580322266 245.607894287109 239.567202148438 239.160535888672 241.971577148437 257.488462524414 282.570712890625 303.543369140625 300.078521728516 291.031362304687 268.194794921875 276.81576171875 277.911791992187 272.364814453125 262.763969726562 262.820648193359 -9999 -9999 -9999 -9999 -9999 -9999 -9999 -9999 -9999
-9999 -9999 -9999 -9999 -9999 -9999 -9999 -9999 -9999 -9999 -9999 -9999 -9999 -9999 -9999 -9999 -9999 -9999 -9999 -9999 -9999 -9999 -9999 -9999 -9999 -9999 -9999 -9999 -9999 -9999 -9999 -9999 -9999 -9999 5.10159349441528 5.35701171875 10.2178640174866 15.7797512435913 20.6969422149658 26.7425239562988 32.9921097564697 67.2493283081055 91.6254138183594 116.700682678223 174.350233154297 185.495518798828 167.106341552734 186.461567382812 193.011737670898 153.32956451416 145.212667541504 160.000929260254 182.365957641602 155.703767700195 115.725183410645 104.799862976074 129.634002685547 154.090649719238 153.68396697998 153.019244384766 95.8336608886719 98.881611328125 122.754641113281 178.995161132813 206.328296508789 139.774312438965 61.3492489624023 62.5419549560547 76.6035498046875 99.6448406982422 84.202021484375 85.4769216918945 94.1631753540039 68.6636437988281 70.3469702148438 77.5049319458008 89.6062911987305 100.661038818359 117.816820983887 120.613717956543 121.804313659668 121.937383728027 114.351192321777 146.816992492676 137.089596557617 128.391552124023 144.417477416992 127.390085144043 107.096445617676 115.395956726074 130.522320251465 142.572695922852 163.535831298828 153.465137329102 154.324248046875 161.738372192383 176.31796081543 190.329024658203 210.656212768555 220.233572998047 215.635001831055 226.229997558594 216.951508789063 260.363214111328 253.450267944336 210.39387512207 164.091798095703 169.732329711914 201.42660949707 190.34383972168 223.71131652832 265.919760742188 302.564672851562 268.802127685547 180.896384887695 167.641744995117 192.877953491211 180.256687011719 191.668576049805 199.114005737305 201.59219543457 210.4282421875 225.253988647461 242.890809326172 258.587370605469 264.283045043945 263.446153564453 289.929071044922 295.513631591797 270.136777954102 258.231320800781 222.301051025391 207.228133544922 225.087341308594 246.843361816406 223.928559570313 216.749647827148 210.046078491211 195.214879760742 200.307218017578 201.747024536133 226.763982543945 261.511981811523 306.760977783203 271.468226318359 260.643109741211 259.275387573242 250.431166992188 244.497481689453 241.853568115234 242.876381225586 251.660869140625 280.59544921875 295.926705322266 283.564455566406 265.097590942383 251.193641967773 251.895810546875 254.107958984375 255.393333129883 256.03930480957 264.02547454834 -9999 -9999 -9999 -9999 -9999 -9999 -9999 -9999 -9999
-9999 -9999 -9999 -9999 -9999 -9999 -9999 -9999 -9999 -9999 -9999 -9999 -9999 -9999 -9999 -9999 -9999 -9999 -9999 -9999 -9999 -9999 -9999 -9999 -9999 -9999 -9999 -9999 -9999 -9999 -9999 -9999 -9999 -9999 4.24111994504929 5.33826482772827 12.1553621292114 19.2220916748047 26.3765650177002 29.7627292633057 38.3354653930664 59.6138832092285 119.475432434082 171.373704833984 190.012136230469 209.992880859375 203.317146606445 238.193739624023 201.60295715332 214.831305541992 189.131484375 205.311196899414 232.737046508789 217.11151184082 139.176948242188 146.037484436035 154.554085693359 169.917056884766 168.372014770508 142.645776062012 119.637608337402 118.03203918457 122.995343933105 198.8200390625 183.90721496582 108.453903503418 72.7368707275391 74.0546478271484 82.5848022460937 122.43208404541 118.972500915527 146.943164367676 127.351084594727 78.3716915893555 77.9019076538086 86.9516851806641 104.808692932129 106.083276977539 122.023323669434 139.205051879883 145.816776123047 162.178711547852 135.703612976074 195.000233154297 173.163548583984 153.957832641602 152.703020324707 114.824395751953 114.800999145508 122.306016540527 134.634325561523 158.054088745117 225.309625244141 179.012617797852 170.525191650391 170.830904541016 181.905687866211 206.886091918945 227.749097290039 257.183529663086 303.857133789063 301.746091918945 222.981625366211 277.121259155273 278.923803710937 217.412490844727 186.066674194336 184.804017333984 208.859055175781 220.011997070313 211.031702880859 266.71887878418 305.558648681641 253.639635009766 183.941274414062 181.005531616211 185.897214355469 194.432568969727 211.67264831543 228.653696289063 230.09147277832 225.342416381836 232.773214111328 245.561314697266 256.238128662109 268.35390625 285.193336181641 303.490877685547 321.356496582031 289.778061523437 246.698822631836 207.859093017578 229.220493164063 246.485057983398 278.756599121094 273.990326538086 239.582447509766 218.228174438477 201.736763305664 201.040834350586 194.28506652832 207.108983154297 249.236007080078 293.644124755859 275.124710693359 271.647255859375 270.630224609375 261.798826904297 253.109431762695 247.223909912109 243.628737792969 248.067747802734 263.501409301758 265.200060424805 258.31517578125 250.097523803711 244.101623535156 242.738768920898 244.42494140625 247.431962890625 253.094936523437 -9999 -9999 -9999 -9999 -9999 -9999 -9999 -9999 -9999 -9999
-9999 -9999 -9999 -9999 -9999 -9999 -9999 -9999 -9999 -9999 -9999 -9999 -9999 -9999 -9999 -9999 -9999 -9999 -9999 -9999 -9999 -9999 -9999 -9999 -9999 -9999 -9999 -9999 -9999 -9999 -9999 -9999 -9999 4.50733409609113 3.55395395278931 5.18016214370728 15.2958586120605 24.3442774200439 30.0713031005859 35.2469952392578 50.0719631958008 73.5435380554199 115.447424621582 164.043142700195 174.705602416992 198.250013427734 226.821409301758 230.021274414063 238.522979736328 240.988099975586 233.124506225586 254.556826782227 275.959569702148 223.885271606445 174.924391479492 189.23641204834 185.868829345703 175.885045166016 182.589431762695 157.211785888672 179.453818054199 165.060192260742 156.033963623047 159.62329284668 111.962328186035 87.8152603149414 88.5828814697266 125.799337463379 156.738967285156 127.06422668457 146.143246765137 185.413480224609 154.650256958008 92.1652487182617 87.8002172851563 91.2744259643555 105.875935668945 122.198046875 123.75082244873 139.995982055664 168.583732299805 164.975109863281 148.432077026367 211.258349609375 165.735997314453 150.840126953125 129.375309143066 120.672188720703 125.507597961426 134.710092163086 141.433844604492 175.739463500977 235.43448425293 177.182284545898 182.461525878906 181.527735595703 193.161528320312 246.141728515625 295.043026733398 315.324398193359 304.781807861328 269.218336181641 230.30210144043 243.704732666016 237.529650268555 207.345182495117 188.304011230469 228.899719848633 236.684004516602 256.012154541016 273.694403076172 288.883448486328 260.793902587891 239.844097900391 207.503498535156 206.521917724609 200.436834106445 208.452708129883 218.345361328125 246.362817382812 231.312791137695 234.772147827148 248.225725097656 258.251104736328 273.596392822266 278.730838623047 287.854024658203 311.183873291016 318.366752929687 265.300217285156 236.262747802734 230.448646240234 244.492247924805 254.494122924805 304.769350585938 316.439759521484 266.524222412109 228.743002929687 212.189724121094 206.753443603516 209.398923950195 199.78903137207 229.082001953125 267.407189331055 299.231174316406 280.932170410156 283.162847900391 271.391058349609 261.737127075195 252.836466674805 252.085863647461 254.365085449219 250.11192565918 250.271561279297 248.010198974609 247.243480834961 243.150208740234 241.401784667969 242.343575439453 239.997648925781 243.606987331225 -9999 -9999 -9999 -9999 -9999 -9999 -9999 -9999 -9999 -9999
-9999 -9999 -9999 -9999 -9999 -9999 -9999 -9999 -9999 -9999 -9999 -9999 -9999 -9999 -9999 -9999 -9999 -9999 -9999 -9999 -9999 -9999 -9999 -9999 -9999 -9999 -9999 -9999 -9999 -9999 3.98317074775696 3.90548455715179 3.72667311367236 4.63842679023743 5.26361852645874 7.91882099151611 15.4785930252075 24.2221541595459 32.347247467041 46.4254248046875 72.7678491210937 102.159099121094 105.622663879395 123.236615600586 145.620615234375 204.138943481445 208.470512695312 207.107667236328 228.307490844727 236.398518066406 266.735921020508 309.218388671875 243.299044799805 241.064091186523 256.051862182617 246.515942993164 264.902343139648 249.118257446289 263.570980834961 206.474820556641 248.9796875 276.625857543945 211.428693237305 139.661625061035 106.85821472168 100.61386932373 103.770180969238 155.220121765137 181.991354980469 131.588491210937 134.826394042969 166.723641967773 177.342152709961 128.879849243164 100.790338439941 102.786296691895 106.366788330078 123.785527038574 160.33977355957 174.949581298828 175.671082763672 170.253389282227 209.21505065918 193.780092773438 164.136333618164 145.684597167969 131.844389953613 129.182130432129 137.355311889648 147.66294921875 154.191198730469 184.608911132812 200.350740356445 185.932677001953 198.414445800781 196.91410949707 191.092229614258 209.337592773438 246.802493896484 279.913842773438 341.600668945313 279.192359619141 236.080850830078 230.372938232422 212.072794799805 199.440639038086 258.721270141602 265.295894775391 292.089526367187 301.241700439453 305.38349609375 263.428315429687 220.709047241211 212.832006835938 222.776558227539 272.680756835937 245.199694213867 233.226466674805 227.558911132813 246.162666015625 248.591298217773 242.683793334961 260.454859008789 273.813204345703 293.127239990234 294.70779296875 300.125599365234 321.231431884766 287.561699829102 242.302310791016 227.857311401367 278.533170776367 267.72559387207 274.812876586914 311.8057421875 351.50048828125 290.025740966797 243.830778198242 220.186067504883 215.127352905273 224.430339355469 203.483344116211 223.637888183594 266.119736938477 301.809143066406 304.453753662109 293.232294921875 279.904688720703 268.098681640625 260.023181152344 253.617109985352 250.006947631836 249.709067993164 248.865393066406 249.567457275391 255.182395019531 243.926373291016 239.791046142578 239.642340698242 238.787467041016 237.479169464111 -9999 -9999 -9999 -9999 -9999 -9999 -9999 -9999 -9999 -9999
-9999 -9999 -9999 -9999 -9999 -9999 -9999 -9999 -9999 -9999 -9999 -9999 -9999 -9999 -9999 -9999 -9999 -9999 -9999 -9999 -9999 -9999 -9999 -9999 -9999 -9999 -9999 -9999 -9999 4.21491241455078 3.90290148117963 4.98249352455139 6.57416976928711 8.36128040313721 10.7554941558838 16.2552704238892 22.4430731201172 31.509308013916 44.4165646362305 64.4156826782227 88.1148776245117 100.772883911133 96.9109271240234 109.570125732422 136.520750732422 169.916904296875 187.117115478516 178.290223388672 205.305939941406 232.994526977539 250.0062890625 292.122490234375 280.814780273438 292.524046630859 286.103991699219 292.183563842773 295.864859619141 281.62591796875 305.930295410156 267.56583984375 332.572321777344 314.974151611328 275.441541748047 148.457999267578 122.677566833496 120.231060791016 125.742973022461 189.159479064941 179.641178588867 195.088220214844 254.802595825195 185.177537231445 190.948577270508 156.978842163086 122.856056518555 120.494653015137 119.28528137207 146.555722961426 190.64599609375 236.17809387207 265.169041137695 314.364910888672 233.193837280273 180.118846435547 160.818500976562 148.554940795898 141.469565429687 136.193325805664 147.224367675781 162.767202148437 179.070450439453 178.88825012207 196.711592407227 201.72481628418 205.012334594727 217.787565307617 205.192212524414 210.346744384766 246.748365478516 264.302611694336 324.228189697266 285.208906860352 266.583663330078 279.138356323242 214.112149658203 212.869141235352 214.803710327148 229.949430541992 252.830701904297 270.73756652832 317.369482421875 270.698151245117 246.688735961914 217.164578857422 216.606680297852 248.985785522461 267.811221313477 266.406340942383 241.363554077148 252.361337890625 265.524822998047 259.344969482422 266.016506347656 282.012668457031 300.456674804688 309.334361572266 311.877362060547 324.478370361328 283.435379638672 244.863210449219 247.554743652344 307.737347412109 300.254866943359 296.396629638672 312.117448730469 348.351470947266 291.535347900391 243.958595581055 234.816068725586 232.720875854492 233.083945922852 213.632393798828 215.310612182617 266.56584777832 301.122082519531 325.850148925781 301.918293457031 288.213117675781 275.632783203125 268.096450195313 260.858027954102 252.450323486328 249.080718383789 249.231184082031 248.822482299805 257.160583496094 248.160476074219 244.415421142578 239.639724121094 237.628831176758 236.896501428941 -9999 -9999 -9999 -9999 -9999 -9999 -9999 -9999 -9999 -9999
-9999 -9999 -9999 -9999 -9999 -9999 -9999 -9999 -9999 -9999 -9999 -9999 -9999 -9999 -9999 -9999 -9999 -9999 -9999 -9999 -9999 -9999 -9999 -9999 -9999 -9999 -9999 -9999 3.82986831665039 3.35732129641942 5.29570449829102 9.91941871643066 12.7052716064453 14.5108721542358 17.4763823699951 25.2804230499268 32.2983499145508 41.7529290771484 58.1098745727539 86.037123260498 83.8753524780273 82.4253897094727 102.864649963379 105.533379821777 139.30083984375 161.281944885254 152.620433044434 177.136012573242 204.967734375 208.320442504883 217.637297973633 258.135952758789 294.742807006836 307.995638427734 306.446107177734 297.041110839844 319.398785400391 326.217276611328 344.260145263672 323.317203369141 334.824086914062 332.973735351562 302.15240234375 217.118836669922 195.972102050781 181.768383789063 184.996839599609 239.868492431641 227.738158569336 275.297217407227 280.904929199219 243.624020996094 265.911468505859 188.78975769043 156.2141796875 169.493639221191 157.985377502441 146.32919921875 193.448959960937 264.757843017578 298.0034375 242.72994140625 196.882711181641 191.583115844727 173.325532226563 160.184124755859 153.830961303711 143.793681640625 153.411201171875 172.777233886719 215.964413452148 201.845133666992 218.714582519531 224.226392211914 220.777595825195 224.402845458984 229.566064453125 217.355728149414 237.139185180664 260.100025024414 289.757434082031 304.790494384766 341.957236328125 310.364210205078 279.705844726562 249.724895629883 200.198646850586 208.240537109375 222.219081420898 265.966704101563 319.575104980469 288.828941650391 269.126995239258 238.289075317383 241.560098266602 248.469927368164 246.601382446289 269.138980102539 275.596572265625 272.04387512207 279.382486572266 273.01197265625 277.227355957031 290.768817138672 308.530699462891 315.511551513672 300.696917724609 263.988961181641 254.375985107422 250.079339599609 276.633783569336 321.751212158203 346.694919433594 323.553208007812 309.445805664063 312.453450927734 266.366904907227 256.520650024414 252.660927734375 234.3659765625 245.529039306641 222.797055053711 215.773810424805 250.25727355957 292.771516113281 331.779848632813 321.251551513672 299.146176757812 284.095500488281 275.409981689453 266.197922363281 257.624785766602 251.039012451172 249.033950805664 248.057129516602 250.009515991211 244.900349121094 239.771997070312 236.22830078125 235.49708190918 234.549793497721 -9999 -9999 -9999 -9999 -9999 -9999 -9999 -9999 -9999 -9999
-9999 -9999 -9999 -9999 -9999 -9999 -9999 -9999 -9999 -9999 -9999 -9999 -9999 -9999 -9999 -9999 -9999 -9999 -9999 -9999 -9999 -9999 -9999 -9999 -9999 -9999 -9999 -9999 3.46368567567123 4.94507977485657 9.62979114532471 14.1346185302734 18.4620503997803 20.8725109100342 25.0996085357666 33.073787689209 41.4484729003906 53.7268891906738 78.1435789489746 117.55375793457 99.2999447631836 111.700108947754 123.443347473145 135.659734191895 151.727646179199 142.110940551758 190.516482543945 177.518283691406 194.287523803711 246.518950805664 249.558438110352 262.451740722656 269.915476074219 276.1194921875 283.178215332031 277.84823059082 296.071003417969 303.217788085938 322.334282226562 318.965499267578 338.662672119141 340.473619384766 310.535545043945 275.415015869141 255.554378662109 287.523168945312 265.24323059082 298.76448059082 272.103693237305 298.940622558594 302.651888427734 307.005841064453 240.01983215332 216.961290893555 208.64791015625 244.853827514648 228.381139526367 154.477598266602 180.747177734375 261.457367553711 262.23083190918 227.297421875 277.562477416992 267.980614624023 189.258927612305 171.767856445313 160.186458740234 154.966195678711 154.834811401367 170.059047241211 192.228706054688 209.271951904297 227.008187255859 234.003839111328 250.32158996582 242.56992980957 245.611934204102 233.918016357422 234.600708007812 250.162819824219 273.160248413086 321.989178466797 342.900266113281 296.990055541992 280.945954589844 227.511274414063 215.953649291992 204.46444152832 221.194931640625 252.981096801758 304.472257080078 293.58462890625 306.814370117187 297.297529907227 246.96592956543 264.229974365234 246.822828369141 256.947674560547 273.040750732422 294.434332275391 306.889454345703 290.567954101563 289.887314453125 302.009672851563 311.035512695312 322.783017578125 280.69337890625 285.630395507813 305.914493408203 290.653879394531 328.437716064453 364.215190429687 352.341334228516 320.894156494141 292.744699707031 281.445305175781 261.821616821289 282.543865966797 279.960385742187 255.276687011719 247.411195068359 231.907171630859 220.332852783203 234.498458862305 283.949581298828 340.98126953125 353.937241210937 311.193371582031 294.87822265625 284.529786376953 273.678328857422 264.617620849609 255.636981811523 249.055685424805 248.588971557617 247.334437866211 241.112891845703 238.621741333008 238.31236328125 237.225248413086 237.102604259144 -9999 -9999 -9999 -9999 -9999 -9999 -9999 -9999 -9999 -9999
-9999 -9999 -9999 -9999 -9999 -9999 -9999 -9999 -9999 -9999 -9999 -9999 -9999 -9999 -9999 -9999 -9999 -9999 -9999 -9999 -9999 -9999 -9999 -9999 -9999 -9999 -9999 3.42356902010301 3.86671093940735 8.70163261413574 14.1568698883057 18.1148540878296 22.7676756286621 27.3589669799805 31.6379267120361 40.9583251953125 50.7090301513672 63.2617263793945 86.0670974731445 112.339510192871 118.639450073242 149.487141418457 141.766670227051 165.500215454102 150.107926330566 188.784729614258 226.823950805664 239.605989379883 242.804251708984 194.296273193359 220.259315185547 232.318062744141 261.858032836914 238.261868286133 251.595612792969 258.645737304687 270.886414794922 278.630251464844 295.186772460938 315.481231689453 332.888454589844 327.708096923828 335.455666503906 309.982380371094 298.948909301758 321.574966430664 332.291864013672 347.067307128906 328.310330810547 314.153288574219 285.139324951172 267.177458496094 245.689440307617 298.154326782227 299.631182250977 246.728452148437 285.314828491211 212.687152709961 218.814822387695 217.757763671875 262.983059692383 300.256948242187 316.070396728516 235.826762084961 202.43087097168 178.23618347168 170.687073974609 165.523266601563 166.899511108398 166.969494018555 180.133600463867 196.221738891602 211.374429321289 227.605792236328 240.064616699219 251.697345581055 262.014932861328 252.431068115234 247.332647705078 260.484866333008 292.176984863281 346.971104736328 344.752464599609 338.011400146484 278.098920898437 246.404150390625 217.26473449707 218.300783691406 243.690325317383 259.276943359375 271.949837646484 301.102299804688 323.849910888672 357.305905761719 256.013941650391 247.577899780273 262.305785522461 269.371390380859 280.126187744141 293.322717285156 316.707930908203 328.58642578125 321.725018310547 322.879282226563 345.332890625 296.195603027344 294.306928710937 300.784553222656 303.308203125 297.508511962891 352.714619140625 365.799239501953 345.332362060547 322.189525146484 315.178605957031 292.772706298828 292.111401367188 313.122736816406 290.564494628906 267.227965087891 243.042655029297 226.307897338867 233.067385864258 236.562057495117 270.056409301758 305.323138427734 372.032716064453 329.169259033203 303.776502685547 292.825069580078 280.878240966797 271.363350830078 264.667768554687 255.25428527832 248.851959838867 247.824685668945 247.044301147461 243.618659057617 242.836234130859 242.076142578125 242.226403808594 -9999 -9999 -9999 -9999 -9999 -9999 -9999 -9999 -9999 -9999
-9999 -9999 -9999 -9999 -9999 -9999 -9999 -9999 -9999 -9999 -9999 -9999 -9999 -9999 -9999 -9999 -9999 -9999 -9999 -9999 -9999 -9999 -9999 -9999 -9999 -9999 4.2349089384079 4.109596118927 6.76591165542603 13.0514308166504 18.4975803756714 22.9081034851074 27.9527797698975 33.427677154541 37.7718545532227 44.3412026977539 57.9592823791504 72.8111717224121 95.1199490356445 126.70986541748 138.393526306152 139.887846679687 149.557799072266 164.117600097656 181.853902587891 190.021864624023 201.421285400391 222.028754882813 256.687749023438 225.232366943359 207.374509887695 231.588883056641 213.973788452148 237.111478881836 239.916913452148 268.287086791992 303.46115234375 297.014090576172 291.611625976562 302.1133984375 310.806416015625 320.423927001953 337.217525634766 337.794317626953 326.690212402344 350.169385986328 359.313626708984 359.543912353516 334.709802246094 306.458838500977 289.740408325195 346.040164794922 288.763958129883 353.029620361328 354.5567578125 295.372985229492 265.230759887695 249.63736328125 289.855048217773 228.756264038086 281.443023681641 360.886629638672 383.540772705078 289.968617553711 199.249013671875 194.413277587891 179.040435791016 177.272020263672 181.734809570313 174.831602783203 180.895611572266 193.219567871094 205.593383178711 216.476571044922 227.618385009766 242.762757568359 258.926455688477 271.288166503906 263.798590698242 270.739299316406 292.008742675781 338.861876220703 350.109168701172 323.371588134766 300.506614990234 290.271000366211 226.082632446289 231.61482421875 249.180137939453 275.20921875 293.884436035156 304.812485351562 342.39091796875 347.601309814453 264.621384887695 262.400559692383 267.6801171875 283.517454833984 292.522005615234 314.668674316406 329.057857666016 356.946817626953 376.841857910156 366.829022216797 363.536889648438 323.313094482422 312.856182861328 305.949859619141 302.571463623047 337.022320556641 304.253133544922 319.833853759766 331.094527587891 329.026733398438 329.242163085937 314.109771728516 292.10232421875 327.047639160156 301.867478027344 271.473071899414 240.009586791992 232.88678894043 249.531225585938 248.028060913086 276.949856567383 319.322026367188 362.471822509766 348.994674072266 316.131184082031 304.1809765625 288.511511230469 278.0865234375 270.515895996094 263.760922851562 255.221407470703 248.942172241211 247.435628662109 246.590301513672 245.643513793945 245.797341918945 245.332281494141 -9999 -9999 -9999 -9999 -9999 -9999 -9999 -9999 -9999 -9999
-9999 -9999 -9999 -9999 -9999 -9999 -9999 -9999 -9999 -9999 -9999 -9999 -9999 -9999 -9999 -9999 -9999 -9999 -9999 -9999 -9999 -9999 -9999 -9999 5.11747572157118 4.07229348591396 4.12473318099976 5.64236394882202 12.0105448150635 18.2447937774658 23.9849851989746 28.9171454620361 33.4731076812744 39.0746138000488 44.3217405700684 50.4557054138184 68.0564004516602 90.8569778442383 104.216555480957 141.907806396484 161.273406982422 180.743905639648 163.580157470703 173.755510253906 199.438810424805 233.862247924805 259.239467163086 229.725477294922 242.022828369141 246.233657226563 258.659633178711 269.214353027344 236.888259277344 238.51707824707 248.646682128906 262.108987426758 292.322958984375 294.961459960937 301.190825195313 313.634796142578 316.311510009766 328.699704589844 330.940987548828 341.774204101562 339.808449707031 352.671844482422 362.444918212891 356.199926757812 339.0100390625 349.098813476562 352.765877685547 381.837298583984 390.055385742188 384.500047607422 329.127037353516 358.766370849609 270.76435546875 288.474242553711 302.009692382812 241.014248657227 368.327462768555 398.111134033203 431.802879638672 295.002391967773 215.602516479492 204.159490966797 191.395494384766 192.017608032227 195.519204711914 190.136053466797 187.42405090332 194.606791381836 207.787640380859 217.083544311523 228.048084716797 240.43716003418 254.447141113281 269.362685546875 283.395213623047 284.799600830078 322.376781005859 334.7140625 403.091561279297 371.840863037109 294.429764404297 336.946428222656 240.48626159668 249.483372802734 262.819342651367 294.086275634766 320.257436523437 326.500469970703 354.871429443359 314.79591796875 280.269489746094 280.972941894531 280.205166015625 288.428842773438 306.898469238281 326.900634765625 367.425518798828 407.223624267578 412.606994628906 414.764489746094 379.580808105469 364.076948242187 364.035920410156 389.051556396484 348.972370605469 352.838065185547 303.87037109375 318.106330566406 322.864959716797 342.359370117187 313.073018798828 301.075616455078 316.822775878906 348.348729248047 317.537531738281 270.871649780273 243.985515136719 251.504823608398 269.577836303711 260.173395385742 273.930458984375 312.093488769531 351.496717529297 355.638648681641 328.916437988281 313.478094482422 294.618686523437 284.736604003906 276.839302978516 269.620317382813 262.067639160156 254.703513183594 249.54591003418 248.892619018555 249.952490234375 253.458265991211 256.777198791504 -9999 -9999 -9999 -9999 -9999 -9999 -9999 -9999 -9999 -9999
-9999 -9999 -9999 -9999 -9999 -9999 -9999 -9999 -9999 -9999 -9999 -9999 -9999 -9999 -9999 -9999 -9999 -9999 -9999 -9999 -9999 3.55619394779205 6.66876316070557 7.76869716644287 7.27677255630493 5.56630949020386 5.65897687911987 9.2920156288147 15.8623931884766 23.2840103912354 30.3375945281982 35.885407333374 40.4672454833984 43.4261932373047 50.4214651489258 56.9089709472656 77.1770848083496 100.13451171875 127.07703918457 136.907156066895 176.253193359375 182.785038452148 191.476370849609 187.666506347656 213.169420776367 234.035289306641 265.085072631836 258.049415893555 270.691721801758 269.930946044922 284.786037597656 281.654790039063 264.826578369141 264.445119628906 271.942325439453 312.609766845703 296.5521875 312.731770019531 308.654887695312 299.048742675781 304.027664794922 315.154017333984 325.168851318359 340.874503173828 355.736983642578 358.959281005859 353.05869140625 361.638760986328 368.612593994141 364.404788818359 381.438892822266 395.472131347656 418.551979980469 419.561318359375 381.474344482422 358.872807617188 273.61206237793 323.786614990234 326.046051025391 285.49067199707 386.306087646484 402.377917480469 362.846745605469 276.981525878906 234.527236938477 215.102437744141 207.408842773437 209.591096801758 211.072572021484 204.285848388672 201.394798583984 198.907686157227 208.439876708984 221.181091918945 233.405246582031 246.718039550781 260.949238891602 274.673016357422 288.250935058594 298.831362304688 316.054057617187 364.47123046875 369.063383789063 326.243588867187 299.585633544922 282.284150390625 241.276278076172 266.407811889648 275.769146728516 304.839528808594 332.060102539062 358.958602294922 356.165983886719 324.617222900391 292.403461914063 287.158231201172 297.887839355469 303.416763916016 307.899645996094 326.103204345703 377.7794140625 414.833817138672 443.883653564453 412.855444335937 387.49390625 405.622495117187 394.582386474609 395.881125488281 366.485433349609 331.338724365234 342.674803466797 350.023916015625 355.231645507813 361.987875976563 330.624974365234 324.479207763672 334.236142578125 324.427769775391 304.025700683594 279.435228271484 275.109825439453 254.847127685547 263.615348510742 257.195147094727 263.774629516602 311.954143066406 340.505960693359 359.935352783203 336.154182128906 317.277415771484 299.802303466797 291.941273193359 281.692788085937 274.70255859375 267.542326660156 261.632666015625 256.228543701172 252.382377319336 252.899296264648 252.499071044922 -9999 -9999 -9999 -9999 -9999 -9999 -9999 -9999 -9999 -9999 -9999
-9999 -9999 -9999 -9999 -9999 -9999 -9999 -9999 -9999 -9999 -9999 -9999 -9999 -9999 -9999 -9999 -9999 -9999 7.40241495768229 8.4358423948288 3.98961339678083 2.17738775253296 5.44219686508179 8.90681671142578 11.458080291748 11.8929740524292 11.0065864372253 15.7445327377319 22.0909868621826 27.8845952606201 36.1145181274414 42.9222175598145 48.0929286193848 51.535428314209 64.0331523132324 63.5570684814453 74.6690356445312 96.6301583862305 111.614841003418 155.725360107422 165.208908691406 180.723348999023 197.770307617188 205.212183227539 207.932549438477 235.217033691406 264.912825927734 276.131506347656 266.214960327148 277.096489257812 292.725733642578 295.0376171875 293.637062988281 300.463200683594 319.201707763672 318.077818603516 317.848618164062 319.534031982422 318.328236083984 312.224027099609 305.108963623047 308.380866699219 313.645074462891 324.056358642578 344.331307373047 345.214844970703 342.355078125 356.276629638672 358.833618164062 376.352404785156 398.353161621094 406.847791748047 417.3431640625 427.042175292969 371.889504394531 322.564877929687 288.703713378906 284.712564697266 270.076903076172 343.754761352539 402.872883300781 446.122733154297 428.362438964844 331.816160888672 319.743192749023 236.434722900391 243.203407592773 253.732528686523 234.925855102539 227.490009765625 220.053873291016 212.608895874023 216.84414855957 221.2019140625 231.008614501953 243.796130981445 257.396503295898 265.506151123047 277.026778564453 289.890687255859 304.824168701172 327.917624511719 338.099215087891 305.193498535156 277.935809326172 262.405693969727 257.19157409668 285.045184326172 304.519925537109 307.468471679688 330.3696875 360.089416503906 354.893073730469 357.834237060547 318.284616699219 296.649379882813 311.17103515625 324.603752441406 335.304342041016 346.548122558594 403.477690429688 418.687821044922 442.297121582031 395.465733642578 381.527332763672 412.395893554688 375.380590820312 400.312775878906 373.161405029297 361.029841308594 375.336162109375 391.6537109375 408.7934375 404.678660888672 369.158244628906 368.540770263672 357.277298583984 349.971687011719 316.277565917969 304.33421875 320.658289794922 294.218125 271.528120117187 268.433350219727 255.466298828125 293.045314941406 317.262337646484 354.082982177734 331.458884277344 322.580040283203 308.900343017578 296.164805908203 289.659819335938 280.144561767578 273.352841796875 267.330681152344 262.109171142578 258.57839050293 254.715451049805 257.63039232337 -9999 -9999 -9999 -9999 -9999 -9999 -9999 -9999 -9999 -9999 -9999
-9999 -9999 -9999 -9999 -9999 -9999 -9999 -9999 -9999 -9999 -9999 -9999 -9999 -9999 -9999 3.10140593846639 4.57026076316833 3.81848315397898 6.27668748118661 3.58255662918091 1.77868389606476 4.63743405818939 8.56362609863281 13.1965994262695 16.9680854034424 17.7717338562012 18.0881687927246 23.9077641296387 30.6388884735107 35.2195897674561 44.8577352905273 50.3785473632812 55.4481214904785 64.8132386779785 86.5870425415039 76.6448043823242 81.693635559082 83.4221423339844 126.037197265625 129.798218688965 139.757212219238 155.656795654297 178.044222412109 182.331716308594 184.404420776367 197.109130859375 217.478591918945 237.451630249023 247.865781860352 264.746688232422 281.581115722656 295.696873779297 318.566019287109 323.517652587891 322.216143798828 319.821140136719 323.742348632812 336.404409179687 333.929617919922 320.824024658203 313.100855712891 310.093742675781 311.308983154297 317.263347167969 324.331694335938 331.593015136719 341.147133789062 348.160919189453 361.679326171875 372.584731445313 385.397625732422 400.268894042969 415.437985839844 420.566243896484 396.565902099609 396.776217041016 330.852731933594 286.417340087891 327.636831054687 410.856619873047 418.699068603516 448.530501708984 452.555570068359 451.354219970703 367.144321289062 320.26201965332 362.039432373047 327.706876220703 293.035891723633 299.498333740234 265.035451660156 242.536111450195 226.979697265625 235.32100402832 239.291226806641 246.275039672852 257.968578491211 271.369464111328 283.085189208984 296.459084472656 318.206146240234 352.738126220703 354.724719238281 333.311993408203 298.558516845703 282.817673339844 263.671215209961 282.186162109375 326.662805175781 335.721412353516 348.978172607422 353.967203369141 336.22005859375 343.571103515625 312.25357421875 301.680067138672 325.804255371094 336.794505615234 366.286446533203 380.945299072266 418.982576904297 428.797590332031 407.613312988281 390.680891113281 378.004951171875 383.246606445313 366.002434082031 347.398039550781 339.894938964844 350.431662597656 397.985689697266 437.439064941406 439.075457763672 415.031865234375 414.959744873047 390.405595703125 388.964598388672 355.506999511719 330.183308105469 329.627351074219 357.560574951172 326.419008789063 305.274895019531 290.210440673828 259.32639831543 279.465112304688 313.204411621094 353.216182861328 337.293544921875 331.977985839844 315.997032470703 304.309873046875 298.056993408203 287.87146484375 277.881380615234 271.421417236328 267.658322753906 266.227933349609 261.905167236328 261.701965332031 -9999 -9999 -9999 -9999 -9999 -9999 -9999 -9999 -9999 -9999 -9999
-9999 -9999 -9999 -9999 -9999 -9999 -9999 -9999 -9999 -9999 -9999 -9999 -9999 4.44606637954712 4.33073507249355 3.9608856678009 4.46516506671905 3.13460715293884 3.684103474617 3.4481763792038 4.23743880748749 7.17279779434204 12.7995052719116 17.9305539703369 22.0058075714111 24.0802147674561 25.8795901489258 30.8930361175537 36.986782989502 44.5938752746582 57.755276184082 64.1458322143555 66.1436578369141 75.3961849975586 88.5725250244141 102.185068359375 91.9759091186523 88.410654296875 105.152801513672 122.694364013672 143.967150268555 150.511006469727 167.79653503418 166.982258911133 192.384384765625 229.746259765625 241.107086181641 252.528927001953 256.995453491211 258.99883605957 290.958854980469 304.062327880859 307.423885498047 315.785618896484 324.153448486328 340.859907226562 417.961153564453 433.189879150391 374.902569580078 339.997349853516 324.552249755859 318.375300292969 314.455 315.755472412109 323.684664306641 331.377255859375 335.888656005859 339.623630371094 356.63787109375 376.275289306641 391.698968505859 410.866610107422 419.418254394531 404.436750488281 401.171883544922 413.445422363281 381.530953369141 316.479573974609 364.794343261719 386.948145751953 417.554434814453 429.829296875 460.126387939453 477.927236328125 427.524055175781 427.779410400391 373.293258056641 295.854993896484 329.066434326172 346.519444580078 321.693339233398 253.550928955078 243.861820068359 243.920969238281 254.115906982422 257.400281982422 263.208295898437 276.988325195312 296.568868408203 299.978061523437 320.925466308594 363.097775878906 349.350627441406 359.613288574219 312.202316894531 287.239123535156 278.118735351563 281.049309082031 290.959033203125 311.123459472656 344.441965332031 363.450637207031 349.334986572266 342.071198730469 319.932379150391 313.224733886719 328.646151123047 365.320626220703 382.246525878906 405.342370605469 437.003571777344 427.182857666016 392.989938964844 375.246239013672 359.586286621094 363.835379638672 350.9814453125 336.943083496094 337.106834716797 348.364603271484 353.430174560547 409.156730957031 431.779670410156 424.886354980469 430.159040527344 400.232000732422 390.089427490234 352.869956054688 363.190844726562 360.391633300781 365.293103027344 342.97865234375 297.426586914063 278.234552001953 277.751107177734 279.304049072266 321.408238525391 352.934210205078 351.418371582031 333.06287109375 322.912930908203 314.845079345703 304.791253662109 293.938122558594 283.880131835938 276.321201171875 277.319351806641 276.192406005859 270.515021972656 266.810062184053 -9999 -9999 -9999 -9999 -9999 -9999 -9999 -9999 -9999 -9999 -9999
-9999 -9999 -9999 -9999 -9999 -9999 -9999 -9999 -9999 -9999 -9999 -9999 5.52929417292277 4.67322036027908 5.2665522480011 5.51950403213501 5.37894778251648 5.68450276374817 6.03842292308807 6.518630027771 7.64961938858032 9.4628404045105 15.4348617172241 21.91713722229 27.7782995605469 30.3545532989502 33.111485824585 38.5349621582031 43.3797805786133 57.0382319641113 57.8336880493164 73.2175570678711 82.7832339477539 83.7234390258789 83.8383508300781 104.641477966309 111.920728759766 109.833175048828 102.851588745117 113.732523193359 157.429179992676 202.917962036133 170.526867675781 196.463751220703 219.631243286133 224.556818237305 250.150588989258 274.31518737793 292.091713867187 280.36901184082 274.972130126953 285.155694580078 297.991380615234 323.421806640625 353.999114990234 440.729166259766 519.020380859375 499.373869628906 452.241181640625 441.921098632813 359.757482910156 340.863706054687 323.95443359375 320.322279052734 320.869030761719 324.358897705078 327.626414794922 331.476018066406 337.673023681641 355.54484375 378.804080810547 394.916755371094 389.641309814453 385.237258300781 380.129412841797 382.605004882813 372.246016845703 345.991328125 373.604470214844 380.97142578125 407.977893066406 430.735780029297 453.244730224609 474.392434082031 473.657005615234 422.325504150391 338.986619873047 318.913780517578 351.334532470703 335.471328125 288.083115234375 253.995783081055 255.797749023437 262.928588867188 261.429002685547 268.686342773438 275.024526367187 281.83826171875 299.060737304688 318.111691894531 323.251151123047 357.863404541016 345.890560302734 331.319028320312 307.990087890625 296.1176953125 294.947023925781 296.498001708984 291.633912353516 316.550998535156 351.209965820313 381.996838378906 382.519061279297 354.409038085937 324.357014160156 332.0634375 348.138828125 369.778634033203 433.399755859375 462.014606933594 461.441871337891 453.773966064453 395.638179931641 361.241237792969 365.166373291016 366.221124267578 347.15927734375 368.668109130859 362.887329101562 359.256480712891 346.853291015625 358.318614501953 363.126472167969 381.584791259766 426.42994140625 417.930445556641 407.805935058594 373.425874023437 388.53248046875 379.162490234375 353.608065185547 325.507371826172 290.459075927734 288.583933105469 293.277469482422 301.889665527344 328.432750244141 359.799184570312 362.844682617188 336.374857177734 328.501761474609 324.519073486328 316.214016113281 297.984686279297 289.518494873047 281.031422119141 282.463338623047 281.997249755859 279.440471191406 275.09404703776 -9999 -9999 -9999 -9999 -9999 -9999 -9999 -9999 -9999 -9999 -9999
-9999 -9999 -9999 -9999 -9999 -9999 -9999 -9999 -9999 -9999 3.68583039442698 3.48975886617388 4.92776890595754 5.14014272689819 5.87334306716919 7.68165727615356 8.16726095199585 8.54039627075195 8.15971084594727 7.50851566314697 8.61818542480469 13.2037159347534 19.861721496582 25.6274648284912 32.1619951629639 36.0788583374023 38.9407716369629 45.0362113952637 51.3741058349609 61.7248741149902 66.9699711608887 77.3649945068359 97.9506365966797 97.3401626586914 103.013580627441 113.775725402832 117.906178588867 111.964169921875 111.118359680176 123.565310668945 159.90567565918 253.10384765625 271.258772583008 191.476526489258 199.40153137207 220.197924804687 253.546362304688 294.199635009766 286.761840820312 296.685909423828 298.881076660156 297.321441650391 304.235030517578 409.332398681641 409.507908935547 461.228991699219 494.207490234375 498.251802978516 504.823874511719 488.493453369141 454.042177734375 440.463792724609 361.682991943359 337.11123046875 331.482299804688 336.617523193359 336.268999023438 341.650637207031 341.434329833984 342.407843017578 361.749089355469 377.579147949219 364.053765869141 359.044343261719 362.059636230469 362.861049804688 367.852685546875 388.266136474609 421.830842285156 399.23923828125 430.385297851562 457.900166015625 463.402779541016 465.107725830078 464.391696777344 397.881867675781 380.697102050781 386.964470214844 369.566057128906 333.565738525391 346.579339599609 290.668172607422 271.028522949219 280.074152832031 290.909150390625 279.529953613281 286.751624755859 290.492724609375 305.691608886719 336.903266601563 340.880916748047 345.554885253906 361.883062744141 359.077106933594 338.312487792969 326.22111328125 319.3444921875 309.224968261719 300.248872070312 326.729050292969 358.118856201172 389.811075439453 407.780986328125 377.699484863281 359.6188671875 350.668499755859 366.678579101562 399.700461425781 433.576097412109 480.010728759766 443.522553710937 424.609222412109 395.682797851562 364.763343505859 384.408549804687 376.442969970703 354.969677734375 375.813544921875 382.406361083984 375.578280029297 373.549034423828 373.533405761719 368.450456542969 385.370628662109 423.508914794922 431.858762207031 415.391153564453 400.508776855469 393.672728271484 374.058658447266 353.48171875 301.771162109375 294.072698974609 312.479156494141 304.343917236328 314.585192871094 330.824871826172 356.988270263672 367.658602294922 345.283992919922 339.706723632812 330.070445556641 330.316982421875 297.631928710937 291.845158691406 287.847596435547 285.744113769531 287.218824462891 288.908392333984 292.588670210405 -9999 -9999 -9999 -9999 -9999 -9999 -9999 -9999 -9999 -9999 -9999
-9999 -9999 -9999 -9999 -9999 -9999 -9999 -9999 -9999 3.14108154990456 2.71133114149173 3.28662140369415 5.21381153106689 6.51149656295776 7.77348114013672 9.61747678756714 11.5528641891479 11.6043884277344 10.6991200637817 10.8681407546997 10.7919668197632 15.2028059387207 22.9746110534668 30.0680272674561 35.9455502319336 40.7718063354492 44.732223815918 53.3319883728027 59.334408416748 66.5615106201172 80.2543212890625 97.4365060424805 121.254107971191 105.02870513916 112.190215148926 139.513469238281 135.485518188477 127.197359924316 120.776693725586 144.126024780273 178.193684692383 239.656860961914 300.236793212891 305.732500610352 222.829392700195 214.674085693359 225.145660400391 252.236641845703 275.163460693359 296.137747802734 326.495295410156 333.851420898437 322.362438964844 445.802962646484 473.439696044922 424.634777832031 432.925725097656 450.955115966797 474.2870703125 524.561291503906 563.81294921875 544.506274414063 416.160567626953 407.774650878906 487.677137451172 431.149227294922 373.863397216797 361.474703369141 358.861014404297 348.412978515625 351.972087402344 356.137974853516 353.823018798828 354.814610595703 357.250355224609 360.751549072266 363.247529296875 370.793128662109 387.384645996094 404.865573730469 406.22646484375 442.393419189453 447.099636230469 446.013061523438 421.368676757813 414.56275390625 446.707375488281 434.14658203125 387.783953857422 398.752076416016 417.173208007812 322.333302001953 286.750030517578 305.252749023438 332.582390136719 299.3017578125 298.561391601562 303.645821533203 324.390180664062 353.887755126953 365.443861083984 359.025262451172 391.218968505859 387.856861572266 360.996048583984 337.085766601563 330.767354736328 311.195964355469 312.238842773438 331.18275390625 354.366218261719 397.806623535156 410.861003417969 403.479307861328 410.019161376953 383.980922851563 398.587371826172 429.383908691406 462.542286376953 450.536434326172 421.443081054688 409.74939453125 407.66568359375 370.711639404297 384.553377685547 360.850311279297 358.315037841797 362.5882421875 390.695367431641 383.253414306641 398.153059082031 407.090854492187 379.916702880859 392.133837890625 417.213184814453 417.745393066406 402.795638427734 397.518516845703 385.957960205078 353.5741796875 328.567177734375 308.163344726563 320.93736328125 337.996357421875 341.113288574219 333.970297851563 354.43701171875 349.342672119141 368.791669921875 350.956911621094 343.776164550781 346.477266845703 366.690516357422 324.121995849609 300.353518066406 297.244638671875 295.0964453125 292.22283203125 292.813846435547 300.380255126953 -9999 -9999 -9999 -9999 -9999 -9999 -9999 -9999 -9999 -9999 -9999
-9999 -9999 -9999 -9999 -9999 -9999 -9999 -9999 -9999 2.37940583103581 2.1989407491684 3.61492858409882 5.98067775726318 7.79084972381592 11.0013991546631 12.6216791152954 15.2629201126099 14.3783777236938 12.7041485214233 13.1669743347168 13.5209276580811 18.672308921814 25.8005088806152 33.2073323822021 39.240320892334 45.8996209716797 49.2770399475098 56.5045568847656 67.0121485900879 72.4881237792969 90.5123754882813 106.713967895508 116.008739013672 111.21881439209 109.434163818359 129.667349853516 140.953505859375 131.390229492188 131.162872619629 154.038294067383 180.475416870117 231.594946289063 300.819508056641 326.344925537109 340.152829589844 265.842274780273 297.944268798828 329.131423339844 335.063275146484 368.801444091797 393.920372314453 448.197495117187 408.760261230469 482.704147949219 473.766024169922 443.778857421875 464.014066162109 462.352618408203 473.154144287109 491.10853515625 530.405599365234 548.783505859375 496.913133544922 543.637415771484 630.840200195312 531.245538330078 515.972354736328 422.353947753906 399.048524169922 363.805737304688 367.463265380859 367.741900634766 365.226733398437 379.031546630859 385.116644287109 371.382346191406 369.009770507813 370.175062255859 375.35251953125 388.562894287109 393.216149902344 412.870057373047 425.422143554688 438.542800292969 453.235950927734 440.998824462891 460.914197998047 457.493634033203 438.622578125 441.758266601563 444.195712890625 337.93201171875 319.494794921875 344.643531494141 397.483898925781 323.360942382812 317.645485839844 323.06052734375 336.218182373047 358.949504394531 371.42830078125 374.170446777344 398.677188720703 373.343519287109 354.669600830078 340.943131103516 325.066176757813 320.203464355469 328.844268798828 343.719919433594 364.214504394531 391.644973144531 418.549434814453 438.935053710937 433.29916015625 392.799375 457.252393798828 450.876459960937 490.465411376953 457.385080566406 498.294152832031 451.005368652344 390.506177978516 377.037133789063 373.896832275391 368.561762695312 382.037489013672 366.858818359375 379.413668212891 411.554490966797 409.954598388672 397.308670654297 402.817817382813 407.750051269531 409.442939453125 392.053869628906 382.437044677734 365.756081542969 359.363703613281 337.606091308594 327.493980712891 332.406508789063 332.440050048828 328.951860351563 356.597718505859 360.385083007813 366.355357666016 373.233818359375 372.601657714844 361.595882568359 360.168939208984 359.645523681641 402.620559082031 351.151901855469 314.733918457031 306.1365625 303.119047851563 299.695697021484 294.810842285156 295.332263183594 -9999 -9999 -9999 -9999 -9999 -9999 -9999 -9999 -9999 -9999 -9999
-9999 -9999 -9999 -9999 -9999 -9999 -9999 -9999 1.72371180852254 2.30585177048393 2.64117205619812 5.04717380523682 7.31673860549927 9.00202463150024 13.4180024337769 14.8854322052002 17.1640047073364 17.8020429992676 15.922520942688 15.7412715148926 16.609962272644 20.0724413299561 27.5141564178467 35.5341499328613 42.8149478149414 49.7400735473633 55.5037008666992 58.1261813354492 72.9253285217285 80.457981262207 91.3082232666016 93.9178756713867 103.913843383789 122.298114929199 118.321078186035 119.178268737793 145.218032226563 145.110417480469 149.203661499023 168.816789550781 199.135256347656 236.349274291992 292.745130615234 350.250395507813 386.807407226562 391.9594921875 342.422930908203 343.092718505859 359.732692871094 389.770321044922 422.71677734375 461.762600097656 439.192813720703 428.235346679687 427.234768066406 433.267877197266 440.919869384766 458.560053710937 485.836251220703 500.547120361328 506.980010986328 526.615981445313 587.199150390625 614.996169433594 603.135593261719 592.056970214844 514.497064208984 474.993487548828 497.903698730469 444.254321289062 395.310003662109 388.073483886719 407.847277832031 483.263229980469 536.998698730469 526.798332519531 430.266396484375 379.538674316406 379.153304443359 389.130623779297 413.669974365234 418.535710449219 435.669567871094 461.310269775391 474.070987548828 480.432553710937 473.793807373047 469.199024658203 472.121695556641 470.249096679688 465.835543212891 390.698907470703 371.943852539063 375.419412841797 421.019245605469 348.651273193359 359.876888427734 349.142833251953 350.005048828125 367.450745849609 389.817846679687 402.790344238281 393.880177001953 380.107135009766 391.304342041016 362.977423095703 334.028410644531 331.963547363281 347.261771240234 359.928649902344 373.026651611328 398.306319580078 430.943959960937 449.830306396484 422.777658691406 412.694123535156 476.91271484375 472.565216064453 485.12328125 466.242457275391 476.515751953125 443.224982910156 391.085229492188 388.850837402344 393.460548095703 390.908682861328 410.186506347656 405.119174804687 405.390140380859 422.506112060547 446.640887451172 437.834964599609 442.287852783203 440.574073486328 428.926358642578 397.273486328125 387.979567871094 370.954404296875 358.722235107422 337.540772705078 345.786535644531 351.080892333984 334.672243652344 328.523276367188 355.252127685547 351.752540283203 359.380268554688 378.473275146484 384.584064941406 374.129200439453 380.055782470703 369.290111083984 374.883225097656 346.584644775391 320.530782470703 315.768258056641 310.968934326172 306.232921142578 300.659173583984 296.90581258138 -9999 -9999 -9999 -9999 -9999 -9999 -9999 -9999 -9999 -9999 -9999
-9999 -9999 -9999 -9999 -9999 -9999 -9999 -9999 1.97433363307606 2.50765559196472 3.45696524620056 4.87957690238953 9.04195364952087 11.908071937561 14.2490686035156 17.0595272064209 19.4666862487793 21.6252586364746 20.1719881439209 19.5264566040039 18.6570056152344 21.4203421783447 29.8091598510742 38.2733840942383 46.3834379577637 55.2271697998047 61.6219366455078 64.3109124755859 68.2209019470215 80.9050006103516 96.7948016357422 98.8678375244141 107.423860168457 119.580722961426 132.032149353027 124.089393615723 140.007711791992 157.948151855469 154.343092651367 164.717733764648 188.649135131836 255.042979736328 299.725008544922 345.861065673828 387.366811523437 433.454509277344 454.444034423828 370.339494628906 392.027263183594 434.827476806641 445.701674804688 466.049063720703 451.7333203125 478.985969238281 438.8937109375 425.365830078125 435.206956787109 464.457718505859 477.053138427734 490.42087890625 503.478696289062 523.027552490234 536.530139160156 551.679877929687 585.164443359375 584.057951660156 514.476124267578 504.379539794922 554.468927001953 504.639416503906 447.052410888672 427.465576171875 537.785654296875 614.142478027344 655.221782226562 643.998918457031 567.274887695312 431.38673828125 394.467935791016 388.42845703125 412.378679199219 430.94880859375 452.590609130859 459.493651123047 464.18072265625 475.285205078125 452.422233886719 462.652193603516 481.681129150391 475.932803955078 476.670909423828 425.938874511719 441.282144775391 409.964011230469 443.184946289063 397.983131103516 398.246762695312 399.192861328125 397.021735839844 389.933793945313 421.60037109375 437.199102783203 403.026868896484 418.290385742187 397.186381835937 365.829274902344 340.195660400391 343.179482421875 345.791143798828 358.667534179687 378.361705322266 397.342136230469 433.013188476563 461.60525390625 437.79185546875 424.556071777344 476.605124511719 487.987965087891 473.892731933594 456.679188232422 437.712830810547 454.721510009766 410.746462402344 413.953541259766 412.250179443359 441.996926269531 454.626839599609 435.308764648437 447.832860107422 459.562934570313 459.638895263672 439.631993408203 436.388253173828 418.996273193359 425.292445068359 409.690242919922 392.082186279297 372.70638671875 340.026466064453 357.953770751953 378.382239990234 366.395910644531 341.881301269531 331.682998046875 329.459799804688 345.798763427734 356.951762695312 368.530284423828 397.98376953125 404.961496582031 387.359302978516 362.570003662109 358.253572998047 339.701477050781 325.697867431641 321.108446044922 316.787171630859 312.171519775391 306.047944335937 -9999 -9999 -9999 -9999 -9999 -9999 -9999 -9999 -9999 -9999 -9999 -9999
-9999 -9999 -9999 -9999 -9999 -9999 -9999 2.02367930114269 2.18934945583343 3.9620825958252 4.15168411254883 7.87086369514465 11.2473021316528 13.2689418029785 15.3679215240479 18.4742156982422 21.4851795196533 24.4140013122559 23.4869770812988 23.2017818450928 22.6550415039063 26.44764503479 34.1059492492676 43.5278030395508 52.4295510864258 62.6521537780762 74.1055703735352 78.9187817382813 79.1966110229492 80.1463436889648 90.6457476806641 97.3842758178711 104.576642150879 120.510616149902 139.439928588867 137.241975708008 136.342315673828 152.990015258789 164.984216308594 176.520036010742 187.460700073242 219.999435424805 291.765714111328 359.503388671875 392.764287109375 429.870805664063 492.893900146484 454.530518798828 443.799381103516 481.921409912109 459.294720458984 463.317978515625 474.558134765625 451.155942382812 455.908966064453 448.846036376953 445.200095214844 464.105885009766 486.289442138672 508.936304931641 525.389099121094 538.81873046875 546.625615234375 551.470100097656 539.412529296875 534.680134277344 514.659221191406 556.769501953125 506.245740966797 501.392625732422 443.507541503906 442.311323242187 505.341311035156 615.996860351563 638.475649414062 648.964736328125 582.155064697266 459.96771484375 410.094782714844 394.077271728516 414.349588623047 438.904248046875 431.991224365234 431.642940673828 435.652864990234 437.918466796875 434.645091552734 455.056240234375 450.471939697266 457.178372802734 480.833757324219 482.060739746094 490.972941894531 439.500112304687 458.154808349609 461.383319091797 456.587331542969 441.677210693359 458.864461669922 446.260416259766 482.592915039063 493.059595947266 443.851900634766 397.207091064453 376.478309326172 357.017690429687 353.558449707031 358.955908203125 366.346888427734 363.559321289062 370.632778320313 389.245698242187 419.248359375 452.814514160156 460.681789550781 456.1784765625 469.7227734375 487.067114257812 473.346850585937 469.730148925781 459.439752197266 465.328070068359 441.312459716797 472.107862548828 446.318829345703 471.320228271484 480.091953125 477.823598632812 485.928529052734 488.669161376953 460.119813232422 428.747884521484 415.723079833984 406.264134521484 407.364509277344 411.008942871094 386.350603027344 362.986750488281 350.968389892578 380.743873291016 378.882819824219 382.268837890625 348.396375732422 338.665565185547 330.556218261719 338.76521484375 363.653775634766 377.766063232422 397.709696044922 400.269149169922 391.186430664063 365.886671142578 365.689100341797 357.661956787109 328.570515136719 332.605512695312 332.900721435547 321.964641113281 316.265053488991 -9999 -9999 -9999 -9999 -9999 -9999 -9999 -9999 -9999 -9999 -9999 -9999
-9999 -9999 -9999 -9999 -9999 -9999 2.28973841667175 2.28115051700955 2.38746066093445 3.92006524085999 8.05729788780212 11.189684715271 13.812414932251 15.9220916366577 18.043240776062 20.9544007873535 22.6879287719727 25.2118927001953 26.7134936523438 26.7189529418945 26.5540343475342 31.4819509887695 39.434624786377 48.1669155883789 57.9559503173828 68.5434103393555 84.1146975708008 100.691211242676 103.574650878906 83.9102444458008 88.448984375 99.5074188232422 110.79560546875 115.28861541748 125.727942199707 133.636391601563 147.215567016602 154.65763671875 176.892870483398 188.609917602539 204.318713378906 225.421542358398 279.407258300781 320.780187988281 394.347142333984 451.359057617187 513.524093017578 476.457264404297 519.736062011719 533.664130859375 523.600457763672 512.584781494141 497.914904785156 484.804033203125 458.858374023437 477.174487304687 466.642290039063 480.676787109375 515.358355712891 525.147535400391 538.097785644531 570.301225585937 590.805634765625 591.606884765625 602.911528320313 604.654670410156 602.045939941406 586.095673828125 533.016060791016 525.082858886719 505.576252441406 497.717893066406 496.027861328125 596.197646484375 592.619367675781 623.115183105469 603.468427734375 532.960686035156 419.289587402344 403.170111083984 399.429925537109 403.156124267578 406.935783691406 410.811555175781 409.894451904297 412.316047363281 414.855959472656 424.825477294922 427.496634521484 444.434334716797 465.273214111328 475.208693847656 481.722667236328 480.412565917969 486.785510253906 490.177279052734 486.924670410156 499.860751953125 501.524145507812 504.35466796875 495.891071777344 464.373167724609 416.551827392578 390.142115478516 376.096348876953 366.859016113281 380.067027587891 389.620106201172 389.513074951172 381.013359375 380.891910400391 392.613876953125 413.58064453125 437.105703125 467.900648193359 483.268414306641 481.956440429688 493.256495361328 495.802348632812 480.085372314453 465.350133056641 497.570202636719 455.885205078125 502.102388916016 479.071320800781 495.395659179688 504.957719726563 496.391689453125 478.201719970703 480.279642333984 448.350395507812 438.975689697266 421.618970947266 402.518771972656 386.802583007812 413.154613037109 407.881977539063 365.616040039063 370.34642578125 394.185725097656 390.605145263672 366.948009033203 351.732891845703 339.023216552734 334.949862060547 350.894094238281 373.374071044922 410.288923339844 404.128273925781 398.203846435547 385.255018310547 369.340452880859 363.899234619141 352.547512207031 334.478739013672 348.967214355469 374.128150634766 331.940380859375 325.093641662598 -9999 -9999 -9999 -9999 -9999 -9999 -9999 -9999 -9999 -9999 -9999 -9999
-9999 -9999 -9999 -9999 -9999 -9999 2.74504484449114 3.52657741546631 2.78533261299133 3.64356413841248 9.7250864982605 12.0003422546387 15.5536752700806 18.6319275665283 20.7193948364258 23.1100852966309 25.0573184967041 26.2898140716553 28.8564022064209 29.1567825317383 29.9646716308594 36.3751354980469 44.5583245849609 51.8551954650879 64.5807049560547 73.9398495483399 87.5839797973633 108.02643737793 112.006068725586 86.6245489501953 89.3253500366211 102.992039794922 121.194824523926 129.780413818359 131.456859130859 146.77274230957 156.403173217773 162.926527709961 169.228413696289 179.278460693359 207.177754516602 226.430680541992 299.073612670898 387.046351318359 392.383525390625 443.850583496094 496.957137451172 539.423288574219 549.185330810547 606.956726074219 596.33359375 537.4646875 530.967824707031 501.158182373047 493.783569335938 488.892418212891 487.704499511719 484.653276367188 523.069439697266 552.241921386719 562.387568359375 636.399782714844 624.697268066406 631.015776367188 637.83173828125 670.674951171875 697.063459472656 647.437709960937 580.529421386719 637.734714355469 603.056062011719 627.409855957031 560.331400146484 596.065537109375 604.062490234375 584.052849121094 618.474152832031 580.394965820312 447.983297119141 423.939471435547 413.59484375 407.545836181641 410.193786621094 408.435379638672 406.836484375 406.543498535156 406.317778320313 406.948702392578 408.888200683594 417.186439208984 431.816157226562 444.943240966797 454.785247802734 463.629194335937 480.560731201172 488.910174560547 502.876779785156 513.899709472656 514.718210449219 516.787297363281 515.529320068359 494.8210546875 470.748618164063 417.698935546875 392.338739013672 399.046916503906 429.180517578125 472.269016113281 419.275938720703 398.806975097656 396.784654541016 398.005404052734 410.743719482422 434.887141113281 471.497260742188 508.489838867187 499.254006347656 512.168168945312 495.74302734375 470.982749023438 491.957672119141 514.008985595703 479.329895019531 518.19623046875 511.606359863281 507.488703613281 500.033576660156 479.619987792969 459.826065673828 470.689184570312 454.830190429687 450.03681640625 431.783060302734 403.165612792969 387.933067626953 390.069079589844 387.787042236328 372.218477783203 415.098952636719 396.584967041016 399.092733154297 367.426008300781 353.168099365234 344.995274658203 348.464613037109 353.814599609375 376.392254638672 397.544901123047 413.034263916016 418.092458496094 398.121997070312 372.340046386719 358.283985595703 347.184732666016 338.118280029297 347.400977783203 384.705203857422 341.909005126953 336.208310953776 -9999 -9999 -9999 -9999 -9999 -9999 -9999 -9999 -9999 -9999 -9999 -9999
-9999 -9999 -9999 -9999 -9999 3.88546242713928 3.11975836753845 4.36896894454956 5.10037902832031 6.77197947502136 9.27939636230469 13.5787275314331 16.8687992858887 20.2578317260742 22.9835375976563 25.1467510986328 27.5454860687256 29.0516400909424 30.4061734008789 31.7163963317871 33.4439681243896 41.193843536377 49.9478515625 59.4328153991699 70.8089645385742 81.8258306884766 95.5020108032227 108.078607177734 107.689337768555 95.7479330444336 95.6497030639649 99.9413925170898 115.237579650879 120.822778930664 124.324772033691 134.276102905273 147.819623413086 147.973518066406 161.068702392578 176.812048950195 209.893986816406 216.881892089844 258.554364013672 354.191845703125 400.888887939453 463.270627441406 535.100187988281 472.450758056641 474.655078125 491.197683105469 502.686062011719 537.327802734375 566.492377929687 547.564838867188 555.634404296875 537.711711425781 518.618403320312 514.190109863281 556.722495117187 655.1910546875 645.13462890625 729.095500488281 669.419333496094 677.263190917969 712.374548339844 671.297927246094 735.770451660156 672.898957519531 604.691791992188 644.992126464844 722.394409179688 683.381691894531 605.345720214844 671.957114257812 689.525219726562 656.171376953125 627.216599121094 589.237060546875 509.422475585937 465.757674560547 448.947418212891 437.327644042969 452.095915527344 436.905161132813 425.586956787109 420.264489746094 412.959345703125 406.710672607422 405.937056884766 405.977802734375 409.226856689453 415.224464111328 424.270865478516 435.634842529297 450.474719238281 469.581990966797 472.875424804687 482.502072753906 486.684790039062 487.758979492188 489.915184326172 483.193961181641 471.961060791016 464.680128173828 435.576820068359 466.441296386719 458.769451904297 486.798819580078 460.634676513672 428.225367431641 429.815717773437 433.271851806641 424.855393066406 447.428582763672 491.450526123047 505.550491943359 511.963394775391 514.47509765625 485.148809814453 481.033801269531 515.294921875 530.398056640625 528.221627197266 522.414610595703 499.852716064453 491.847431640625 486.053377685547 484.607491455078 467.071791992188 446.032092285156 433.383469238281 431.275133056641 415.014339599609 411.772645263672 398.021463623047 394.625864257813 382.966232910156 415.333654785156 412.656986083984 391.866496582031 394.719680175781 369.180191650391 352.921778564453 342.130859375 350.707067871094 360.332568359375 382.222664794922 385.6376953125 406.24181640625 417.636149902344 392.914871826172 372.111812744141 359.067048339844 352.011274414062 343.292768554687 347.491733398437 365.477591552734 354.783317871094 370.350117274693 -9999 -9999 -9999 -9999 -9999 -9999 -9999 -9999 -9999 -9999 -9999 -9999
-9999 -9999 -9999 -9999 -9999 2.72335183620453 2.93571005761623 3.25999563217163 6.2988237285614 8.99157789230347 11.1319770050049 15.3765051269531 18.3365018463135 21.543723526001 24.5317612457275 27.821450881958 30.3954705047607 31.8748496246338 33.6577712249756 35.5223849487305 36.8287889099121 43.2000093078613 51.5655230712891 61.2657391357422 74.4210131835937 83.8226055908203 99.9790975952148 116.476950073242 131.834709472656 106.349213867188 101.971565551758 105.592049560547 110.935439758301 120.618949279785 138.244016723633 166.203000793457 139.997644042969 151.089840087891 162.501136474609 177.085590209961 193.364030151367 211.180088500977 226.465522460938 278.979765625 354.6992578125 407.787124023438 487.797186279297 512.243197021484 457.831118164063 433.985123291016 455.089410400391 487.466203613281 597.014331054688 608.800869140625 589.653620605469 659.401130371094 634.614602050781 604.543562011719 590.149050292969 577.802475585937 640.708823242187 660.16181640625 705.155178222656 686.731459960938 751.04953125 737.338239746094 768.79208984375 739.09298828125 660.715439453125 707.824150390625 760.989621582031 657.413129882813 612.403679199219 687.610539550781 729.374909667969 710.245866699219 665.664155273437 633.293447265625 588.038557128906 558.037369384766 610.200897216797 632.017908935547 561.358669433594 564.592055664063 509.861612548828 445.937623291016 425.232749023438 412.333740234375 407.439417724609 406.897529296875 408.119158935547 409.0133984375 411.095125732422 416.519844970703 426.069338378906 434.589711914062 447.451091308594 454.582209472656 464.529978027344 469.546796875 465.599423828125 459.298673095703 468.630249023438 477.1208203125 465.967626953125 481.081136474609 514.249709472656 524.235700683594 506.088054199219 458.784422607422 463.134213867187 472.645084228516 472.414758300781 461.582705078125 473.603792724609 489.212326660156 514.971822509766 502.891759033203 489.014356689453 491.089605712891 497.903586425781 515.938416748047 529.18052734375 515.315230712891 499.818045654297 486.892150878906 473.550289306641 467.864191894531 461.337570800781 451.401540527344 427.770229492188 413.823051757812 403.661309814453 402.300521240234 386.237403564453 404.375535888672 419.860828857422 463.912877197266 411.623608398438 406.484024658203 399.807120361328 374.051865234375 355.315751953125 351.398707275391 366.266706542969 366.660974121094 376.180845947266 397.607877197266 413.861705322266 430.22513671875 408.561500244141 373.199921875 365.577548828125 362.760927734375 350.108688964844 351.874809570312 361.372542724609 385.00681640625 399.386706542969 -9999 -9999 -9999 -9999 -9999 -9999 -9999 -9999 -9999 -9999 -9999 -9999
-9999 -9999 -9999 -9999 -9999 3.24511136611303 3.50607095718384 2.87201359272003 8.22949451446533 10.9442101287842 12.6147403717041 17.2824918365479 20.0800666046143 22.5394750213623 25.9208274078369 29.5324297332764 32.6259874725342 34.6519430541992 36.0183032226563 37.9028883361816 40.3134764099121 46.5839120483398 55.2480796813965 65.6261868286133 75.6208111572266 85.230751953125 101.646036071777 120.374011535645 150.957228088379 116.57561340332 122.83247253418 112.099757995605 120.407340393066 130.699417419434 155.689085083008 206.179703369141 155.468063354492 161.655700073242 167.622697143555 175.563525390625 187.81253112793 207.225488891602 226.950426025391 252.389426879883 279.559328613281 352.808029785156 453.998587646484 523.825229492188 459.275739746094 430.394979248047 454.056246337891 509.054074707031 603.767956542969 624.747646484375 615.433200683594 632.164606933594 625.60396484375 575.3481640625 531.744979248047 528.641665039062 561.515295410156 571.293779296875 585.432658691406 656.892106933594 714.96421875 784.070874023437 781.430795898438 720.643125 715.262265625 769.560603027344 701.674370117188 636.261799316406 598.424509277344 608.809494628906 610.47388671875 614.348742675781 615.935478515625 618.43599609375 631.763706054688 686.559548339844 703.081442871094 790.472673339844 693.594909667969 664.025178222656 665.142524414062 558.490606689453 492.398432617187 441.16603515625 423.256870117187 411.460235595703 412.121348876953 413.342618408203 412.456560058594 411.068411865234 412.025877685547 416.718553466797 425.322927246094 430.872005615234 430.997547607422 432.920596923828 430.803189697266 429.837188720703 438.326005859375 445.214387207031 444.258243408203 466.377049560547 490.918029785156 519.90658203125 503.59865234375 491.058446044922 497.454495849609 509.376827392578 473.260163574219 465.328092041016 485.972028808594 514.066315917969 529.900422363281 519.0990234375 499.868746337891 513.863095703125 525.608460693359 529.312158203125 520.719790039062 515.598081054688 501.633073730469 485.838006591797 470.458479003906 456.274522705078 451.591268310547 445.487703857422 437.59853515625 423.889670410156 414.422171630859 410.978875732422 396.815377197266 410.527796630859 434.345916748047 460.236928710937 416.376199951172 407.777984619141 383.913531494141 371.185815429688 363.268299560547 360.661368408203 360.623941650391 381.990922851563 390.291578369141 414.283359375 421.57373046875 450.578507080078 401.846965332031 378.84234375 378.32998046875 388.970810546875 361.648992919922 360.374515380859 375.332203369141 380.156633300781 392.377087402344 -9999 -9999 -9999 -9999 -9999 -9999 -9999 -9999 -9999 -9999 -9999 -9999
-9999 -9999 -9999 -9999 2.77834630012512 4.15892312526703 4.44517311096191 7.28991285324097 8.79846996307373 11.9263693237305 14.943162727356 18.1496519088745 21.8804177093506 24.9831079101562 27.3603157806396 30.9460857391357 34.5511715698242 36.7514996337891 38.5924072265625 40.796078338623 42.0558853149414 44.8533865356445 58.8859127807617 76.0040637207031 87.2536819458008 94.274026184082 103.764255065918 116.4672265625 139.278676757812 131.662996826172 133.380049438477 121.884045410156 126.069772033691 136.124725646973 148.635358886719 161.176857910156 160.400099487305 156.731785888672 167.637888793945 170.698656005859 184.982417602539 200.24662902832 233.786434326172 250.075961303711 266.8951171875 338.692149658203 397.096652832031 467.646175537109 485.735982666016 408.092816162109 414.256774902344 457.535301513672 485.592625732422 593.372989501953 610.202288818359 708.807431640625 674.110168457031 552.688286132813 514.529069824219 529.352213134766 540.088160400391 551.635686035156 575.106879882812 568.589731445313 588.340100097656 588.459829101562 597.269328613281 595.090368652344 588.529533691406 630.4846875 646.677336425781 597.433635253906 598.584177246094 599.66892578125 602.000629882813 611.44236328125 636.520100097656 623.310500488281 646.7483203125 792.538767089844 848.174143066406 789.4840234375 752.342416992188 715.088837890625 728.25845703125 637.653649902344 646.410495605469 546.554519042969 503.245285644531 455.567093505859 436.956326904297 431.037622070313 427.589862060547 417.444185791016 411.102282714844 409.893032226563 412.749348144531 417.655902099609 417.097652587891 421.425469970703 420.398419189453 414.233489990234 412.822404785156 420.650422363281 423.907856445313 437.816088867187 458.191475830078 473.991651611328 474.295881347656 477.963004150391 472.885231933594 507.779554443359 482.745480957031 485.334924316406 497.802044677734 509.641015625 511.815885009766 516.636345214844 501.020270996094 515.971015625 526.782028808594 514.457667236328 509.000538330078 500.537172851563 487.585864257812 479.663292236328 466.758657226562 457.066954345703 453.783254394531 444.629536132813 430.027470703125 423.819090576172 422.239304199219 408.838630371094 407.6178125 427.283677978516 452.257211914063 445.049688720703 417.384143066406 402.91111328125 397.944903564453 379.547790527344 377.205706787109 368.74650390625 373.288177490234 391.3779296875 417.2264453125 407.051807861328 432.703035888672 436.231970214844 406.166234130859 400.248588867187 381.680336914062 381.392718505859 366.513369140625 367.107021484375 382.832982177734 401.585355224609 428.406204223633 -9999 -9999 -9999 -9999 -9999 -9999 -9999 -9999 -9999 -9999 -9999 -9999
-9999 -9999 -9999 -9999 2.03919434547424 3.2815829048986 4.56997620582581 10.0743329811096 11.9083348464966 13.71319190979 15.895025100708 19.2749794006348 22.3645461273193 26.2210164642334 29.4182490539551 32.9576498413086 35.9028465270996 39.4455905151367 41.8189318847656 43.6647799682617 45.6185165405273 47.7866661071777 65.9205548095703 88.4699517822266 98.4669348144531 110.264552307129 101.024651489258 113.679094543457 145.192959594727 153.206085205078 146.372609863281 134.556345825195 133.82262878418 147.668625488281 156.212751464844 157.370865478516 148.213876953125 149.312086181641 155.839296264648 164.188787231445 180.000649414063 199.927734985352 221.797033081055 247.126444702148 273.171652832031 319.495938720703 458.970576171875 501.73458984375 524.122344970703 501.651546630859 405.23283203125 417.799566650391 403.687633056641 445.780251464844 489.508759765625 585.506651611328 538.608907470703 496.999659423828 483.936351318359 497.273804931641 509.482471923828 517.398552246094 530.835756835937 560.655600585937 570.456528320312 577.876892089844 600.869650878906 611.404299316406 600.88876953125 621.128342285156 610.310190429688 604.753090820313 603.850493164063 604.126989746094 605.629731445312 611.387053222656 647.161149902344 634.441286621094 784.909338378906 808.005480957031 845.270112304687 804.324860839844 759.297731933594 724.603862304687 697.542390136719 738.535078125 739.405441894531 633.719221191406 623.532407226563 587.128963623047 546.140255126953 466.555897216797 449.086124267578 438.710269775391 425.145122070312 413.884691162109 411.662414550781 416.992183837891 410.920251464844 413.237033691406 409.960393066406 408.282222900391 408.540404052734 409.044333496094 410.45701171875 415.785225830078 423.089345703125 434.020682373047 439.00083984375 445.548638916016 450.828062744141 466.330635986328 456.1684765625 460.723004150391 471.339287109375 493.323255615234 501.306656494141 488.732484130859 493.612523193359 530.797327880859 532.270393066406 512.986768798828 496.598577880859 487.493201904297 477.762044677734 470.347846679688 469.8898828125 467.003675537109 466.932984619141 453.823680419922 440.512335205078 436.354750976563 425.751363525391 422.820509033203 416.224450683594 424.124327392578 454.225738525391 432.589412841797 424.963350830078 422.917271728516 403.604165039062 380.230982666016 387.335537109375 370.183686523437 383.350506591797 399.774304199219 424.060758056641 412.246577148437 441.503820800781 438.741196289062 420.856649169922 418.087438964844 393.094466552734 378.790595703125 365.965595703125 374.665704345703 392.074890136719 410.7723828125 417.388558523996 -9999 -9999 -9999 -9999 -9999 -9999 -9999 -9999 -9999 -9999 -9999 -9999
-9999 -9999 -9999 -9999 2.5059568973688 2.61440682411194 3.89138319015503 8.76629165649414 13.0506874465942 15.8526837158203 17.8495911026001 20.1667764282227 23.5754371643066 27.3396898651123 30.9719263458252 33.8078109741211 37.1841389465332 40.0993251037598 43.8461700439453 46.6025057983398 48.7303103637695 51.3472590637207 60.9438998413086 84.0619183349609 94.8643661499023 95.4950500488281 99.3932611083984 120.704006347656 154.320953979492 134.289660339355 142.423182983398 130.087171630859 137.841498413086 146.852288208008 160.052138671875 156.511055297852 143.676611328125 144.069003295898 162.439510498047 162.790246582031 174.21025390625 194.757984619141 218.553939208984 242.306775512695 251.404677124023 276.002474365234 342.442014160156 431.842559814453 484.662709960937 386.611641845703 379.747058105469 392.290042724609 422.487593994141 460.255112304687 448.425671386719 465.640587158203 480.512012939453 481.005158691406 520.395255126953 550.060119628906 530.318264160156 556.683415527344 579.939038085937 584.5148046875 606.997412109375 605.125217285156 619.805334472656 626.482355957031 636.659299316406 630.805859375 610.289680175781 608.344348144531 613.663527832031 620.442014160156 632.555944824219 623.046770019531 662.401276855469 641.968293457031 801.098269042969 963.256589355469 869.890258789062 782.701911621094 731.549104003906 708.696650390625 699.803254394531 710.319362792969 720.671555175781 706.691520996094 723.944450683594 753.486606445313 715.7521875 556.388438720703 550.122620849609 476.494149169922 453.302728271484 440.099152832031 434.328267822266 426.942828369141 415.738837890625 410.928040771484 408.869011230469 408.575203857422 408.323913574219 408.416251220703 408.77921875 408.773353271484 409.425590820312 411.458421630859 413.907319335937 418.833597412109 422.145185546875 426.002270507813 427.715389404297 432.775935058594 442.322198486328 464.643376464844 474.601409912109 476.431456298828 509.820246582031 510.963707275391 542.993493652344 510.677701416016 492.784982910156 480.306458740234 473.859851074219 476.260541992187 482.207637939453 490.147331542969 483.020939941406 460.475220947266 453.627969970703 448.144400634766 447.838431396484 438.534124755859 443.982264404297 434.439720458984 452.805734863281 440.788991699219 427.594909667969 415.442963867187 401.602142333984 394.545043945312 391.973826904297 376.022124023438 387.878465576172 411.575759277344 417.505618896484 422.445191650391 461.127623291016 448.771436767578 437.238837890625 434.781357421875 406.062238769531 389.573370361328 374.142651367188 378.049583740234 396.845242919922 422.829438476562 427.204718017578 -9999 -9999 -9999 -9999 -9999 -9999 -9999 -9999 -9999 -9999 -9999 -9999
-9999 6.81711387634277 6.7982280254364 -9999 3.54268281800406 4.31016194343567 6.88054249763489 9.46354122161865 14.5179791259766 17.8515936279297 21.1102417755127 23.4927416229248 25.8046382904053 28.4608680725098 31.728473815918 35.2006393432617 38.149779510498 41.1713732910156 44.6531480407715 48.1746710205078 51.529263458252 53.0191249084473 57.8141845703125 79.9864408874512 84.4438897705078 83.2184970092773 103.000484008789 103.24049621582 125.976798706055 124.509100952148 130.077666625977 122.83178894043 143.231312255859 158.817052612305 158.773239135742 143.414829101563 136.988553466797 143.965152587891 156.016694335938 159.949751586914 168.994407958984 182.92143371582 221.26555480957 229.263299560547 235.966635742187 250.129172363281 268.139450683594 319.498671875 427.190671386719 431.9082421875 374.068032226562 417.344459228516 445.230938720703 477.033271484375 519.845310058594 508.883536376953 496.546396484375 526.806099853516 523.515360107422 528.474321289062 554.2101171875 585.568686523437 628.057521972656 630.708513183594 724.917004394531 747.729614257812 791.542663574219 735.908364257813 652.057333984375 623.49826171875 626.22919921875 619.048117675781 624.74806640625 635.706882324219 656.715261230469 640.519287109375 663.7398828125 654.935024414062 684.909606933594 842.793630371094 908.95751953125 807.950810546875 795.506032714844 734.82599609375 711.271076660156 712.419885253906 735.2890234375 717.859812011719 768.194729003906 730.587241210937 718.413859863281 623.623303222656 596.088186035156 578.518851318359 618.100668945312 539.812976074219 486.381951904297 464.805229492187 439.757707519531 424.783491210937 416.902895507813 409.865635986328 408.604981689453 408.805550537109 408.885869140625 408.937331542969 408.962219238281 409.034460449219 408.473254394531 408.371180419922 408.671038818359 409.253679199219 412.329038085937 418.350115966797 424.282652587891 428.798570556641 435.882904052734 450.062653808594 480.180272216797 498.081724853516 525.935694580078 501.184090576172 479.883674316406 470.795834960937 474.709010009766 489.57744140625 498.133902587891 501.730349121094 487.727370605469 466.714448242187 468.168961181641 464.16658203125 460.566441650391 449.103917236328 454.995615234375 463.949913330078 457.640552978516 442.741960449219 428.714184570313 404.373465576172 399.529233398437 411.140711669922 394.031405029297 387.178896484375 383.207277832031 399.594613037109 414.691596679688 433.680086669922 475.864874267578 479.815018310547 463.992239990234 435.795477294922 416.471195068359 402.152952880859 387.780346679688 380.510947265625 394.567907714844 421.155009765625 -9999 -9999 -9999 -9999 -9999 -9999 -9999 -9999 -9999 -9999 -9999 -9999 -9999
-9999 8.46096723330648 16.3126979555402 2.75515186786652 3.78766536712646 4.83259695053101 8.84090015411377 11.756619644165 14.8847683334351 18.5948057556152 22.9241939544678 26.3281352233887 29.1512622833252 31.7322216033936 33.2962788391113 36.4798092651367 39.8850646972656 43.1665621948242 46.1443995666504 49.4148818969727 53.8072424316406 56.2237405395508 63.3595600891113 81.7497061157227 74.9456079101563 78.5503570556641 82.1279370117188 88.3618890380859 99.4400442504883 110.034319458008 120.705958557129 117.642450256348 147.99326965332 163.482758178711 153.607150268555 134.143370361328 133.695103149414 141.595729980469 154.647789306641 165.862609863281 180.808119506836 188.016634521484 197.83393737793 208.664020385742 228.724725341797 255.653034667969 264.029346313477 265.886631469727 288.619632568359 334.415675048828 340.97048828125 516.440920410156 515.126268310547 495.990162353516 518.897633056641 562.524985351562 605.660170898438 606.497897949219 565.664382324219 543.254543457031 541.620446777344 572.229636230469 595.989443359375 645.6842578125 694.406037597656 673.881342773437 775.448369140625 629.247609863281 594.239287109375 621.829284667969 660.93302734375 632.255234375 637.407927246094 670.436977539062 724.056762695312 683.057595214844 673.8406640625 672.326022949219 687.226142578125 790.685725097656 845.091997070312 832.321936035156 881.457951660156 913.596845703125 767.641586914062 735.195354003906 768.687221679687 761.915341796875 710.285407714844 705.736306152344 673.260952148437 646.990207519531 629.286911621094 690.414809570313 769.138903808594 710.126396484375 648.961389160156 549.798446044922 502.936953125 464.767917480469 438.07841796875 416.297761230469 409.602150878906 410.548381347656 411.449182128906 411.635314941406 412.165808105469 411.357412109375 410.094858398438 409.054913330078 407.994230957031 407.556291503906 407.487135009766 408.521263427734 411.863760986328 418.400377197266 426.039693603516 434.683311767578 447.196551513672 473.058763427734 500.713319091797 487.989553222656 466.733188476562 468.720249023437 486.318278808594 492.785079345703 495.730975341797 498.518414306641 487.103959960938 477.018961181641 485.042266845703 475.841151123047 482.330347900391 463.619138183594 466.557143554688 465.665269775391 447.960068359375 430.364862060547 423.651912841797 412.352513427734 416.893359375 425.273280029297 406.268953857422 401.638878173828 386.342380371094 396.756856689453 414.297673339844 429.039714355469 449.445787353516 475.677075195313 488.652265625 459.548549804688 429.601629638672 417.544010009766 403.563922119141 388.338934326172 392.462873535156 408.635410474694 -9999 -9999 -9999 -9999 -9999 -9999 -9999 -9999 -9999 -9999 -9999 -9999 -9999
-9999 27.294032740593 20.080852022171 2.71801626205444 2.96221300125122 5.32973793983459 9.08884428024292 12.9399738693237 17.6875660324097 21.2432964324951 26.1858321380615 29.7176467132568 32.1647222137451 36.3425451660156 36.9727981567383 37.8632649230957 40.4777053833008 43.8136929321289 47.6869047546387 51.0110920715332 55.2878161621094 58.8552821350098 61.6838404846191 67.0614610290527 69.8595074462891 73.7349942016602 78.0485992431641 82.7469027709961 87.5699523925781 98.842981262207 121.628096618652 133.86492401123 143.060529785156 133.843029174805 133.424840393066 130.61203338623 130.083836975098 133.942368774414 151.756162719727 172.014582519531 195.021299438477 232.506859741211 212.30041809082 212.408817749023 228.267692871094 277.492892456055 342.848953857422 338.106967773437 359.460419921875 316.359833984375 316.529481201172 360.458662109375 521.682672119141 457.199787597656 460.293018798828 494.647585449219 535.778406982422 550.587697753906 576.187579345703 582.662653808594 533.404635009766 556.919636230469 552.41865234375 568.396669921875 592.634448242188 626.72849609375 653.515617675781 561.20751953125 579.062390136719 673.733564453125 685.101237792969 656.693395996094 658.321623535156 667.412932128906 776.8533203125 721.688869628906 695.100864257813 700.430810546875 689.63583984375 797.62123046875 854.911325683594 895.419870605469 944.829602050781 953.126774902344 860.650563964844 802.085856933594 798.799616699219 761.331809082031 738.003435058594 731.936281738281 716.604790039063 708.215317382812 673.674165039062 687.462880859375 748.210734863281 748.935512695312 760.959135742188 734.832893066406 619.685390625 547.365798339844 499.96955078125 440.215847167969 417.004525146484 414.414499511719 415.593488769531 416.601361083984 417.469517822266 416.7524609375 414.270775146484 410.415419921875 409.231726074219 408.456776123047 408.160655517578 408.2743359375 408.660754394531 411.795534667969 416.690510253906 420.214822998047 428.691116943359 453.084270019531 476.752041015625 478.209102783203 453.154927978516 463.296945800781 478.151845703125 476.767911376953 479.097055664063 488.063041992187 501.829420166016 496.611147460938 492.643695068359 491.924996337891 506.278237304687 483.672279052734 479.353284912109 458.256312255859 448.996125488281 431.273225097656 422.547573242188 419.371402587891 432.435887451172 435.122947998047 410.333615722656 400.26375 392.033470458984 401.2294921875 411.037775878906 418.7680078125 432.780584716797 473.370760498047 501.890853271484 468.417270507812 457.326918945313 440.111943359375 424.145300292969 402.032111816406 393.490737304688 404.592868041992 -9999 -9999 -9999 -9999 -9999 -9999 -9999 -9999 -9999 -9999 -9999 -9999 -9999
